4.13492,3.17185,-0.356511
3.8189,3.16187,-0.348091
3.53397,3.15649,-0.342911
4.41535,3.18075,-0.569263
4.0848,3.17898,-0.549035
3.76913,3.169,-0.529741
3.49527,3.17005,-0.520503
7.51951,4.12971,3.94613
7.05563,4.26264,3.77519
6.45976,4.2737,3.53325
5.23035,3.77207,2.93957
7.63292,4.29301,3.64008
6.99975,4.31694,3.40637
5.7397,3.86652,2.85975
5.79251,4.24815,2.9562
6.56751,3.7753,2.83828
6.90958,4.34837,3.0418
6.2853,4.31042,2.83039
5.82359,4.34141,2.68643
7.39243,4.33773,2.86206
6.81672,4.36824,2.69188
6.27374,4.37666,2.53214
5.55993,4.20681,2.29912
7.24654,4.33594,2.4899
6.47305,4.22229,2.26974
6.1657,4.37039,2.20805
5.65115,4.34261,2.07231
7.10435,4.32969,2.13721
6.55777,4.35221,2.01143
6.03936,4.34904,1.89273
5.49705,4.28689,1.76051
7.03941,4.36766,1.81869
6.47633,4.36948,1.70446
5.92947,4.33707,1.59238
5.50005,4.35302,1.50848
6.90155,4.35801,1.49051
6.34363,4.34902,1.39631
5.86802,4.35769,1.31612
5.43207,4.36186,1.24132
6.78231,4.35344,1.17848
6.27946,4.37401,1.1094
5.8122,4.38173,1.04425
5.26092,4.28483,0.96248
6.50848,4.24688,0.857588
5.84586,4.13386,0.781762
5.6114,4.29308,0.759647
5.16821,4.27038,0.709517
6.51326,4.32012,0.5813
6.13549,4.40809,0.552651
5.66057,4.39652,0.512259
5.21415,4.36929,0.474244
6.52909,4.3997,0.303354
6.02767,4.39616,0.277511
5.599,4.41096,0.2539
5.17804,4.40166,0.229056
4.59348,3.14081,0.0252559
4.2721,3.16085,0.0184181
3.97017,3.1708,0.00898528
3.61537,3.11558,-0.000356257
4.57066,3.17376,-0.175596
4.22122,3.17026,-0.172035
3.89778,3.15977,-0.17167
3.60416,3.15204,-0.174084
4.51568,3.18355,-0.376145
4.15828,3.17048,-0.361138
3.84336,3.16323,-0.352662
3.55197,3.15395,-0.346664
4.45256,3.18793,-0.576644
4.11183,3.18086,-0.554858
3.79636,3.17313,-0.535472
3.51676,3.171,-0.525264
7.55879,4.12048,3.95263
7.15084,4.28956,3.81173
6.50031,4.27106,3.54172
5.25715,3.76612,2.94283
7.6735,4.28435,3.64585
7.00731,4.29132,3.39706
5.76108,3.85464,2.859
5.88523,4.28778,2.99076
6.64524,3.79259,2.86048
6.93836,4.33632,3.04222
6.38094,4.34682,2.8612
5.83704,4.323,2.68115
7.45674,4.34451,2.875
6.84058,4.35363,2.68993
6.29883,4.36508,2.53122
5.59318,4.20462,2.30244
7.2704,4.31983,2.48725
6.48007,4.19836,2.26214
6.16544,4.34156,2.19795
5.70305,4.35447,2.0813
7.12547,4.31262,2.13356
6.5868,4.34237,2.01064
6.08527,4.35373,1.89764
5.57016,4.31642,1.77463
7.12947,4.39351,1.83224
6.4979,4.35517,1.70123
5.97282,4.34078,1.59536
5.52258,4.34336,1.50639
6.98814,4.3831,1.50028
6.36817,4.33741,1.39357
5.90729,4.35901,1.317
5.46981,4.36481,1.24231
6.82282,4.35037,1.17761
6.31524,4.37061,1.10819
5.83866,4.37399,1.04185
5.41287,4.38159,0.982577
6.7419,4.37058,0.880037
5.8953,4.14228,0.781787
5.64923,4.29512,0.758363
5.18986,4.26199,0.706536
6.54148,4.31069,0.577407
6.16926,4.40439,0.549505
5.6874,4.39009,0.508913
5.25886,4.38003,0.472742
6.55978,4.39201,0.298907
6.05869,4.39118,0.273456
5.6209,4.40113,0.249815
5.24617,4.4328,0.226969
4.61684,3.13674,0.0215898
4.28871,3.15351,0.0150144
3.98426,3.16275,0.00581974
3.67388,3.14721,-0.00375181
4.59634,3.17156,-0.179974
4.24487,3.16851,-0.176086
3.9272,3.16453,-0.175839
3.62916,3.15513,-0.177862
4.54439,3.18391,-0.381509
4.19833,3.18167,-0.367402
3.87325,3.1689,-0.357817
3.56999,3.15134,-0.350437
4.47772,3.18626,-0.582394
4.13733,3.1814,-0.560489
3.82593,3.17903,-0.541587
3.5368,3.17052,-0.529815
7.59809,4.11106,3.95909
7.1634,4.26646,3.80445
6.57984,4.29368,3.57108
5.28695,3.76216,2.9477
7.72382,4.28088,3.65612
7.06378,4.29557,3.41121
5.78861,3.84678,2.86125
5.95428,4.30948,3.01317
6.68482,3.78769,2.86631
6.94641,4.31127,3.03365
6.41004,4.33737,2.86234
5.86178,4.31292,2.68099
7.50637,4.34239,2.88222
6.88288,4.35061,2.6951
6.33957,4.3642,2.53646
5.58839,4.17375,2.29034
7.31407,4.31536,2.49125
6.49104,4.17704,2.25593
6.21702,4.34919,2.20603
5.7237,4.34219,2.07899
7.14406,4.29397,2.12917
6.62069,4.33559,2.01126
6.12889,4.3565,1.90175
5.63968,4.3426,1.78745
7.16725,4.38666,1.83247
6.52352,4.34348,1.69902
6.00198,4.33395,1.59457
5.55896,4.34447,1.50797
7.01732,4.37174,1.49791
6.48645,4.38926,1.41068
5.94108,4.35606,1.31662
5.51071,4.37004,1.24392
6.85835,4.34391,1.17585
6.3633,4.37547,1.10899
5.87307,4.37206,1.04078
5.45361,4.38729,0.983004
6.78895,4.37214,0.878877
5.93425,4.14302,0.780415
5.68396,4.29456,0.756627
5.21535,4.25666,0.704024
6.69066,4.38047,0.583376
6.19573,4.39532,0.545713
5.71029,4.3805,0.50521
5.28372,4.37398,0.469543
6.6071,4.39527,0.295072
6.08243,4.3808,0.269085
5.64358,4.39182,0.245736
5.27935,4.43397,0.223539
4.65678,3.14378,0.0178265
4.30289,3.14432,0.0116064
4.00773,3.16209,0.00255853
3.70524,3.15514,-0.00690842
4.61876,3.16698,-0.184228
4.27735,3.17321,-0.180615
3.95278,3.16601,-0.179833
3.64968,3.15417,-0.181401
4.56822,3.18069,-0.386457
4.22894,3.18543,-0.372796
3.90165,3.17315,-0.362852
3.594,3.15391,-0.354886
4.50289,3.18447,-0.588178
4.16049,3.17999,-0.56581
3.85556,3.18478,-0.547741
3.55613,3.16929,-0.534271
7.63822,4.10188,3.9659
7.21116,4.26425,3.81567
6.616,4.28756,3.57697
5.31902,3.75966,2.95376
7.7815,4.28119,3.66973
7.13384,4.30767,3.43169
5.80301,3.83011,2.85706
5.97467,4.2956,3.0111
6.75877,3.80195,2.88659
7.01188,4.32173,3.04984
6.43214,4.32306,2.86038
5.89864,4.31163,2.68627
7.55772,4.34096,2.89001
6.92121,4.34486,2.69867
6.36076,4.34968,2.53393
5.60178,4.15659,2.28563
7.4912,4.38898,2.53982
6.48413,4.1443,2.24364
6.2332,4.33183,2.20167
5.78808,4.36289,2.09223
7.17425,4.28223,2.12816
6.66356,4.33448,2.0145
6.15754,4.3484,1.90125
5.62234,4.30163,1.77323
7.19336,4.37251,1.82975
6.56706,4.34357,1.70133
6.05023,4.34069,1.59867
5.58691,4.33879,1.50725
7.06156,4.3696,1.49862
6.50626,4.37386,1.40677
5.97649,4.35411,1.31655
5.5339,4.361,1.2416
6.96177,4.38006,1.18525
6.40818,4.37784,1.10918
5.90911,4.37115,1.03995
5.48051,4.38163,0.980974
6.8143,4.3595,0.874971
5.97326,4.14358,0.778991
5.72429,4.29803,0.755548
5.39915,4.37993,0.721596
6.7233,4.37314,0.579659
6.24421,4.40168,0.54368
5.74109,4.37688,0.502126
5.30627,4.36591,0.466127
6.66783,4.40712,0.291684
6.13541,4.39129,0.265779
5.66072,4.37812,0.241431
5.30338,4.42727,0.219748
4.75487,3.18968,0.0137251
4.33887,3.15098,0.0080381
4.03124,3.16132,-0.000731945
3.72219,3.15061,-0.00992483
4.65355,3.17074,-0.189112
4.30347,3.17299,-0.184857
3.97528,3.16487,-0.183686
3.67627,3.15834,-0.185332
4.59617,3.18021,-0.391817
4.25003,3.18186,-0.377296
3.92702,3.17476,-0.367606
3.6173,3.15571,-0.359283
4.53215,3.18541,-0.59456
4.18526,3.17969,-0.57139
3.87758,3.18407,-0.552765
3.57622,3.16863,-0.53887
7.66955,4.08779,3.96813
7.22834,4.24376,3.81081
6.64377,4.27583,3.5783
5.34291,3.75122,2.95529
7.86039,4.29275,3.6931
7.17945,4.30462,3.44039
5.82356,3.81746,2.85587
6.02745,4.30485,3.02511
6.79359,3.79381,2.89022
7.06069,4.32154,3.05873
6.45343,4.30814,2.85804
5.93556,4.31016,2.6915
7.58439,4.32513,2.8884
6.97812,4.35051,2.7093
6.37169,4.32812,2.52738
5.60439,4.13148,2.27662
7.49456,4.35997,2.53005
6.52167,4.14002,2.24651
6.26831,4.32756,2.20388
5.80725,4.34917,2.0893
7.21529,4.27679,2.13026
6.76025,4.36798,2.03359
6.17587,4.33291,1.89759
5.64651,4.29259,1.77189
7.22615,4.36229,1.82865
6.61476,4.34614,1.70462
6.06194,4.32103,1.59329
5.60946,4.32879,1.50508
7.13857,4.38737,1.50602
6.53423,4.36386,1.40457
6.01593,4.35488,1.31728
5.55166,4.34762,1.23808
7.00336,4.37675,1.18431
6.47934,4.39782,1.11367
5.93882,4.36536,1.03798
5.51674,4.38327,0.980507
6.83628,4.34462,0.870627
6.01806,4.1479,0.778223
5.74956,4.28998,0.752527
5.42971,4.37767,0.719485
6.83468,4.41663,0.582192
6.26501,4.38831,0.53935
5.81087,4.40269,0.502128
5.38131,4.40078,0.466889
6.73203,4.42084,0.288336
6.1657,4.38526,0.261568
5.70396,4.3845,0.238033
5.32818,4.42112,0.215957
4.77263,3.18113,0.00993139
4.35063,3.13986,0.00460082
4.05477,3.16044,-0.00405222
3.74221,3.14859,-0.0130014
4.69502,3.17882,-0.19437
4.32479,3.16909,-0.18888
3.99623,3.16239,-0.187479
3.69913,3.15912,-0.189066
4.62333,3.17902,-0.397138
4.27353,3.17998,-0.382058
3.94931,3.17373,-0.37207
3.63763,3.15479,-0.363378
4.56064,3.18564,-0.600868
4.20609,3.17626,-0.576424
3.8981,3.182,-0.557583
3.59038,3.16261,-0.542532
7.78621,4.1188,4.01398
7.26516,4.23473,3.81619
6.73148,4.30238,3.61149
5.62498,3.92316,3.09751
7.9004,4.28267,3.69824
7.21399,4.2947,3.44376
5.84021,3.8022,2.85278
6.0524,4.29394,3.02522
6.83417,3.78869,2.89622
7.11119,4.32208,3.06824
6.48956,4.30303,2.86217
5.96567,4.30356,2.69362
7.62757,4.31857,2.89297
7.01171,4.34133,2.7109
6.49369,4.3817,2.56415
5.67213,4.15428,2.29361
7.52026,4.34398,2.52773
6.60722,4.16585,2.26554
6.33597,4.34545,2.21725
5.82563,4.33481,2.08608
7.32155,4.30959,2.15116
6.78946,4.35736,2.03259
6.21645,4.33293,1.90062
5.74116,4.33681,1.79211
7.26313,4.35444,1.82855
6.66254,4.34846,1.70784
6.07598,4.30303,1.58851
5.65684,4.3378,1.50937
7.15525,4.36772,1.50091
6.56793,4.35755,1.40352
6.05384,4.35431,1.31762
5.57716,4.34023,1.23622
7.04164,4.37113,1.18277
6.49159,4.37748,1.1083
5.98294,4.36997,1.0384
5.55146,4.3835,0.97973
6.95658,4.39187,0.878172
6.05802,4.14862,0.776793
5.77802,4.28419,0.749871
5.48746,4.39707,0.720728
6.87002,4.41038,0.578529
6.28415,4.37371,0.534867
5.83305,4.39205,0.498243
5.40863,4.39615,0.463749
6.76542,4.41399,0.283765
6.24169,4.41145,0.258948
5.76157,4.4016,0.23507
5.35223,4.41422,0.212111
4.79288,3.17415,0.00610107
4.38996,3.14855,0.000926375
4.06965,3.1527,-0.00730801
3.76224,3.14648,-0.016102
4.73575,3.18612,-0.199644
4.34612,3.16509,-0.192929
4.01642,3.15919,-0.191253
3.72582,3.16304,-0.193063
4.65791,3.18277,-0.403194
4.29384,3.17561,-0.386534
3.97475,3.1751,-0.376886
3.6595,3.15507,-0.367665
4.58834,3.18516,-0.607099
4.23725,3.1805,-0.582996
3.91632,3.17795,-0.562072
3.61274,3.16375,-0.547538
7.81607,4.10332,4.01524
7.29883,4.22368,3.81989
6.74243,4.27945,3.60373
6.1919,4.29038,3.39325
7.94696,4.27592,3.70634
7.27964,4.30304,3.46175
5.87782,3.8005,2.85978
6.07582,4.28186,3.02456
6.88713,3.79018,2.90731
7.19233,4.34085,3.09067
6.58929,4.33969,2.89386
5.99046,4.29298,2.69333
7.66002,4.30573,2.89346
7.0364,4.32651,2.70907
6.51579,4.3672,2.56179
5.68623,4.13744,2.28914
7.57427,4.34417,2.53474
6.61888,4.1447,2.25951
6.35851,4.33207,2.21498
5.85169,4.32611,2.08556
7.4725,4.3678,2.18468
6.81868,4.34661,2.03155
6.26827,4.34049,1.90692
5.80043,4.35364,1.80131
7.32366,4.36045,1.83418
6.72024,4.35694,1.71346
6.17557,4.34536,1.60551
5.68098,4.32873,1.50753
7.20977,4.37104,1.50351
6.62222,4.36467,1.40669
6.08699,4.35012,1.3169
5.61436,4.34179,1.23683
7.13303,4.39813,1.18977
6.53174,4.37588,1.1075
6.01351,4.36445,1.03648
5.60027,4.39459,0.981278
7.0048,4.39292,0.876838
6.10625,4.15474,0.776307
5.80249,4.27531,0.746691
5.50882,4.38699,0.717366
6.88689,4.39214,0.573378
6.36394,4.4011,0.535126
5.86002,4.38491,0.494708
5.42278,4.38072,0.459547
6.78792,4.39989,0.278763
6.25168,4.39062,0.253916
5.78671,4.39358,0.230931
5.37086,4.40277,0.208065
4.81312,3.16709,0.0022465
4.40904,3.1425,-0.00262052
4.09638,3.15407,-0.0107177
3.77922,3.14172,-0.0191815
4.76576,3.18597,-0.204428
4.36826,3.16158,-0.197048
4.04213,3.16021,-0.195369
3.74951,3.16424,-0.196905
4.68349,3.18016,-0.408434
4.31497,3.17174,-0.391114
4.001,3.17696,-0.381818
3.68139,3.15525,-0.371979
4.61036,3.18058,-0.612559
4.26529,3.1822,-0.589142
3.9438,3.18132,-0.568006
3.6284,3.1589,-0.551479
7.88228,4.1067,4.03495
7.31987,4.2052,3.817
6.78186,4.27455,3.61105
6.22832,4.28652,3.39976
7.99438,4.26938,3.71475
7.31426,4.29271,3.46501
5.93031,3.80815,2.87383
6.13645,4.29579,3.04213
6.91051,3.77515,2.906
7.18987,4.30885,3.07749
6.628,4.3356,2.89887
6.052,4.30853,2.70927
7.69412,4.29367,2.89452
7.1528,4.3677,2.74195
6.54102,4.35473,2.56063
5.70721,4.12558,2.2874
7.61918,4.33884,2.53866
6.65496,4.13879,2.26167
6.42245,4.34668,2.22684
5.90335,4.33613,2.09393
7.52909,4.37002,2.19081
6.88561,4.35966,2.04148
6.3162,4.34504,1.91197
5.8303,4.34805,1.80146
7.41378,4.38361,1.84694
6.77232,4.36141,1.71756
6.20894,4.34052,1.60551
5.7098,4.32312,1.50688
7.25172,4.36643,1.50347
6.68073,4.3742,1.41064
6.08724,4.32233,1.30925
5.65396,4.34498,1.23789
7.15373,4.3811,1.18523
6.57606,4.37683,1.10733
6.05777,4.36866,1.03679
5.6078,4.37308,0.975816
7.02946,4.37898,0.872625
6.14304,4.1528,0.774369
5.82536,4.26515,0.743288
5.52938,4.3762,0.713885
6.91465,4.38079,0.569055
6.41766,4.40994,0.533231
5.89579,4.38422,0.491822
5.44622,4.37275,0.456052
6.82467,4.39492,0.274234
6.32876,4.41675,0.251157
5.7983,4.37519,0.226318
5.39103,4.39251,0.204049
4.825,3.15445,-0.00156611
4.486,3.17748,-0.00675291
4.10967,3.14495,-0.0139951
3.79774,3.13816,-0.0223042
4.79498,3.18512,-0.209209
4.39529,3.16147,-0.201459
4.05763,3.15313,-0.198922
3.77018,3.16276,-0.200584
4.70744,3.17632,-0.413549
4.33852,3.16953,-0.395961
4.02025,3.17313,-0.386042
3.70483,3.15663,-0.37649
4.63975,3.18097,-0.61909
4.28938,3.1808,-0.594737
3.96592,3.18019,-0.573142
3.65905,3.167,-0.557881
7.93567,4.10303,4.048
7.34323,4.188,3.81531
6.85461,4.29034,3.63582
6.26102,4.27991,3.40419
8.0132,4.24739,3.70995
7.35371,4.28502,3.47048
5.95791,3.79954,2.87588
6.18277,4.29934,3.05254
7.89247,4.28094,3.30171
7.21553,4.29377,3.07625
6.67306,4.33542,2.90655
6.12063,4.32866,2.72817
7.77397,4.30684,2.91249
7.16706,4.34597,2.73601
6.57258,4.34635,2.56189
5.73359,4.11754,2.28777
7.6566,4.32903,2.54005
6.70007,4.13828,2.26679
6.45702,4.34106,2.22856
5.93959,4.33452,2.09684
7.56308,4.35884,2.19039
6.93544,4.36149,2.0463
6.34178,4.33397,1.91031
5.85629,4.33944,1.80039
7.4476,4.37301,1.84582
6.77833,4.33603,1.71019
6.23751,4.33215,1.60426
5.79653,4.36102,1.52104
7.28779,4.35808,1.50218
6.73359,4.37966,1.41332
6.13085,4.32532,1.31065
5.69363,4.34798,1.2389
7.18116,4.36812,1.18176
6.61301,4.37264,1.10589
6.08439,4.35993,1.03413
5.64813,4.37711,0.97583
7.08622,4.38486,0.872177
6.1807,4.15124,0.77248
5.85867,4.26252,0.741118
5.5812,4.38999,0.714185
6.9787,4.3922,0.567464
6.46078,4.41118,0.530443
5.94203,4.39107,0.489687
5.55774,4.43515,0.459239
6.86481,4.39193,0.269772
6.3724,4.41907,0.247174
5.9265,4.44447,0.225417
5.41583,4.38596,0.200152
4.8536,3.15268,-0.00553644
4.50846,3.17339,-0.0104253
4.12771,3.13942,-0.0173489
3.80392,3.12434,-0.0252469
4.82423,3.18412,-0.214029
4.43533,3.17055,-0.206619
4.09918,3.16617,-0.204026
3.78781,3.15861,-0.204093
4.73388,3.17403,-0.418934
4.3645,3.16898,-0.401081
4.03795,3.16797,-0.390123
3.73437,3.16305,-0.381714
4.67163,3.18289,-0.626011
4.3127,3.1787,-0.600245
3.98729,3.17834,-0.578185
3.68375,3.16976,-0.563341
7.95991,4.08406,4.04625
7.36497,4.16981,3.81279
6.90972,4.29462,3.65114
6.28316,4.26595,3.40291
8.14185,4.28325,3.75539
7.3972,4.27947,3.47777
5.97846,3.78632,2.87453
6.21469,4.29261,3.05584
7.99294,4.30347,3.33065
7.25088,4.28433,3.07907
6.72373,4.3386,2.91654
6.18561,4.34571,2.74529
7.82984,4.30627,2.92143
7.19348,4.33158,2.73465
6.60178,4.33627,2.5622
5.76695,4.11438,2.29083
7.68817,4.31573,2.53948
6.74197,4.13553,2.27076
6.44281,4.30262,2.21372
5.9751,4.33217,2.09943
7.61391,4.35716,2.19471
6.97136,4.3543,2.04702
6.42599,4.3627,1.92589
5.89636,4.3411,1.80352
7.48734,4.36572,1.84608
6.80324,4.32274,1.70749
6.26609,4.32367,1.60297
5.8169,4.34851,1.51807
7.3891,4.38835,1.5139
6.80392,4.3961,1.41946
6.21567,4.35699,1.3205
5.72004,4.34063,1.23705
7.21111,4.35656,1.17865
6.64668,4.36609,1.10388
6.13442,4.36778,1.03526
5.68383,4.37731,0.975013
7.0931,4.35965,0.8658
6.21841,4.14949,0.770543
5.94763,4.30002,0.745545
5.61043,4.3857,0.711675
7.0099,4.38262,0.563301
6.48085,4.39649,0.525851
5.97149,4.38527,0.486216
5.57904,4.42486,0.455447
6.92017,4.3984,0.265759
6.41281,4.4189,0.243027
5.94143,4.42807,0.220796
5.45464,4.3906,0.196637
4.87636,3.14696,-0.00948852
4.53176,3.16977,-0.0141348
4.1354,3.12596,-0.0205798
3.86807,3.15803,-0.0291839
4.84851,3.17968,-0.218623
4.46326,3.17071,-0.211156
4.12975,3.17046,-0.208529
3.81389,3.16142,-0.208166
4.77195,3.17936,-0.42548
4.38568,3.16479,-0.405745
4.05644,3.16335,-0.394309
3.75941,3.16547,-0.386461
4.70109,3.18297,-0.632622
4.33443,3.1753,-0.605545
4.01489,3.18133,-0.58422
3.70399,3.16852,-0.568094
8.00931,4.07786,4.05714
7.39861,4.15826,3.81635
6.94239,4.28469,3.65462
6.31967,4.26163,3.40929
8.22073,4.29218,3.7778
7.44154,4.27418,3.48537
6.01862,3.78541,2.88247
6.27265,4.30362,3.07171
8.07376,4.3148,3.35126
7.24408,4.24993,3.06419
6.75944,4.33186,2.92003
6.19908,4.32627,2.73974
7.9267,4.32779,2.94532
7.23703,4.32736,2.73967
6.63576,4.32918,2.5643
5.80113,4.11161,2.29416
7.81466,4.35529,2.56968
6.75681,4.11601,2.26572
6.46209,4.28669,2.21027
6.01378,4.33191,2.10306
7.62937,4.33504,2.18895
6.9941,4.33873,2.0439
6.48872,4.37627,1.93498
5.92709,4.33566,1.80379
7.54574,4.36905,1.85078
6.89517,4.35175,1.72116
6.33021,4.33945,1.6105
5.8404,4.33826,1.51588
7.42618,4.37996,1.51263
6.81804,4.37591,1.4141
6.26437,4.36281,1.32275
5.74802,4.33435,1.2355
7.29372,4.37651,1.18381
6.67291,4.3545,1.10063
6.15867,4.35702,1.03213
5.71643,4.37492,0.973633
7.11856,4.34587,0.86159
6.25616,4.14755,0.768556
5.97063,4.28935,0.742005
5.62475,4.36965,0.707346
7.14024,4.43458,0.566464
6.51164,4.38898,0.52204
6.00499,4.38227,0.483009
5.60111,4.41511,0.451689
6.95705,4.39282,0.26107
6.44586,4.41344,0.238594
5.95791,4.41282,0.216211
5.50289,4.40255,0.193338
4.90248,3.14331,-0.0135037
4.56163,3.17061,-0.0179523
4.21011,3.16303,-0.0247985
3.88049,3.14908,-0.0322878
4.87781,3.17841,-0.223516
4.50346,3.1794,-0.216419
4.16039,3.17459,-0.213072
3.84233,3.16601,-0.212423
4.80344,3.18008,-0.43143
4.41656,3.16748,-0.411422
4.08201,3.16416,-0.399274
3.78221,3.16584,-0.390981
4.73717,3.18734,-0.640217
4.3674,3.18001,-0.612545
4.03786,3.18049,-0.589563
3.72273,3.16589,-0.572624
8.05715,4.07057,4.06715
7.43066,4.14566,3.81905
6.98521,4.28082,3.66332
6.39495,4.28314,3.43625
8.27921,4.29,3.79076
7.51494,4.28523,3.50633
6.04626,3.77641,2.88441
6.31311,4.30229,3.07898
8.09331,4.29305,3.3466
6.73331,3.92157,2.83933
6.82217,4.34217,2.93497
6.2442,4.32882,2.74797
7.99703,4.33424,2.95928
7.30601,4.33801,2.75409
6.67456,4.32505,2.56817
5.82834,4.10373,2.29473
7.84891,4.34283,2.56978
6.79629,4.11143,2.26879
6.47973,4.26963,2.20625
6.06583,4.34101,2.11119
7.73946,4.3664,2.2098
7.08957,4.36799,2.06156
6.51046,4.36189,1.93199
5.95941,4.33123,1.80449
7.60338,4.37157,1.8552
6.90939,4.33128,1.71573
6.35078,4.32508,1.60711
5.87649,4.33724,1.51684
7.47093,4.37588,1.51284
6.87032,4.38009,1.41641
6.29129,4.35321,1.32047
5.83596,4.37297,1.24637
7.32547,4.36554,1.18085
6.71575,4.35359,1.09998
6.21209,4.36672,1.03366
5.76248,4.3826,0.974399
7.13209,4.32474,0.855981
6.28731,4.14105,0.765749
6.00334,4.28553,0.739578
5.65084,4.3627,0.704405
7.13428,4.40132,0.559406
6.55487,4.38968,0.519108
6.04902,4.38675,0.480532
5.62945,4.41019,0.448367
7.05234,4.42378,0.25817
6.48306,4.41063,0.234246
5.99367,4.41175,0.212176
5.53952,4.40491,0.18965
4.99266,3.18044,-0.0182597
4.58333,3.16561,-0.0217044
4.25947,3.18051,-0.0287328
3.89445,3.14133,-0.0354327
4.9105,3.17916,-0.22863
4.52576,3.17523,-0.220712
4.18392,3.17313,-0.217222
3.86388,3.16475,-0.216262
4.83413,3.18009,-0.43734
4.4548,3.17524,-0.417888
4.11786,3.17276,-0.405376
3.80733,3.16802,-0.395791
4.77249,3.19098,-0.647742
4.39802,3.18279,-0.619229
4.06242,3.18076,-0.59518
3.74224,3.16383,-0.577301
8.0887,4.05486,4.06895
7.47469,4.13957,3.82781
7.06088,4.29675,3.68896
6.47199,4.30526,3.46391
8.30807,4.27223,3.79021
7.58205,4.29224,3.52421
6.0873,3.77563,2.89261
6.35748,4.30337,3.08806
8.16272,4.29755,3.36228
6.69829,3.87327,2.81374
6.84766,4.32846,2.93397
6.27623,4.32205,2.75044
8.04235,4.32677,2.96398
7.41122,4.36962,2.78179
6.77987,4.3636,2.59714
5.85712,4.09683,2.29587
7.90594,4.34274,2.57716
6.84735,4.1136,2.27559
6.50376,4.25673,2.20437
6.12741,4.35655,2.12246
7.76767,4.35104,2.2075
7.14885,4.37438,2.06871
6.54267,4.35443,1.93202
5.98389,4.32095,1.80282
7.66452,4.37575,1.86035
6.94599,4.32477,1.71571
6.47271,4.37936,1.62868
5.91816,4.34012,1.51914
7.50635,4.36612,1.51114
6.88023,4.35705,1.41017
6.35637,4.36978,1.3259
5.86016,4.36332,1.24389
7.40666,4.38373,1.18554
6.81279,4.38741,1.1078
6.27212,4.38069,1.03615
5.79914,4.38286,0.973567
7.14556,4.30357,0.850361
6.31348,4.13112,0.762327
6.03445,4.2804,0.736921
5.66983,4.35017,0.700599
7.16645,4.39163,0.555139
6.59318,4.38683,0.515756
6.12793,4.41614,0.48052
5.6523,4.40085,0.444613
7.09785,4.42296,0.253599
6.5145,4.40373,0.229677
6.01656,4.40105,0.207728
5.56681,4.39964,0.185662
5.02063,3.1774,-0.022413
4.59762,3.15541,-0.0253832
4.27126,3.16966,-0.0321286
3.91151,3.13604,-0.0386527
4.94323,3.17975,-0.233789
4.54972,3.1721,-0.225129
4.21146,3.17456,-0.221646
3.88545,3.16338,-0.220127
4.8707,3.18378,-0.443869
4.48579,3.1776,-0.423654
4.153,3.18057,-0.411441
3.82942,3.16753,-0.400283
4.80703,3.19388,-0.655197
4.42788,3.18484,-0.625834
4.07997,3.17542,-0.599727
3.77466,3.17255,-0.584128
8.10471,4.03126,4.06298
7.52197,4.13502,3.83813
7.07884,4.27721,3.68461
6.50042,4.29463,3.46567
8.32864,4.2501,3.78589
7.63635,4.2916,3.53605
6.11339,3.76536,2.89374
6.4081,4.30838,3.10002
8.24725,4.30954,3.38397
6.73643,3.86747,2.81858
6.89944,4.3312,2.94405
6.34946,4.34337,2.77062
8.08519,4.31773,2.9677
7.44359,4.35775,2.78233
6.75549,4.31828,2.57699
5.90704,4.10451,2.3051
7.97234,4.34743,2.58744
7.1101,4.24201,2.3513
6.52131,4.23953,2.20032
6.16557,4.35506,2.12564
7.76105,4.31616,2.19547
7.15428,4.3476,2.06049
6.58949,4.35648,1.93622
6.04626,4.33783,1.81228
7.78197,4.41153,1.87873
7.05674,4.36402,1.7335
6.49426,4.36508,1.62537
5.96228,4.34452,1.52199
7.61774,4.40014,1.52425
6.98599,4.39447,1.42298
6.38418,4.36038,1.32369
5.88277,4.35239,1.24106
7.44874,4.37835,1.18405
6.84333,4.37789,1.10504
6.28183,4.35924,1.03056
5.78752,4.34655,0.964923
7.16408,4.28543,0.84531
6.368,4.13955,0.76211
6.06802,4.27684,0.734507
5.79243,4.41679,0.70882
7.19692,4.38075,0.550712
6.63985,4.38931,0.512951
6.16327,4.41366,0.477258
5.66962,4.38713,0.440439
7.13322,4.4156,0.248663
6.54512,4.39611,0.225046
6.03863,4.38967,0.203232
5.59176,4.39239,0.18158
5.052,3.17637,-0.0266454
4.63664,3.16209,-0.0294309
4.29187,3.1653,-0.0356849
3.98714,3.1775,-0.0430674
4.96506,3.17316,-0.238384
4.57533,3.17,-0.229671
4.23425,3.17226,-0.225808
3.91014,3.16444,-0.224227
4.90482,3.18564,-0.450199
4.50707,3.17291,-0.428452
4.17793,3.18033,-0.416436
3.85385,3.16884,-0.405067
4.83087,3.18948,-0.661142
4.4602,3.18847,-0.632843
4.10065,3.17244,-0.604786
3.80184,3.17664,-0.590119
8.12228,4.00842,4.05782
7.55086,4.12015,3.83908
7.10851,4.26469,3.68629
6.52503,4.28137,3.46537
8.34915,4.2279,3.78156
7.72317,4.30881,3.56265
6.17038,3.77393,2.90924
6.43874,4.2997,3.10234
8.28437,4.29635,3.38626
6.76399,3.85541,2.819
6.94813,4.33168,2.95271
6.37773,4.33354,2.77131
8.16339,4.32724,2.98414
7.48749,4.35244,2.78706
6.84672,4.34685,2.60032
6.10847,4.21667,2.37224
8.06002,4.36324,2.60438
7.11787,4.21698,2.34354
6.53721,4.22122,2.19571
6.1888,4.34286,2.12371
7.78575,4.29877,2.19218
7.19122,4.33994,2.06118
6.61853,4.34654,1.93523
6.07715,4.33175,1.81238
7.80332,4.39228,1.87421
7.11273,4.36875,1.73793
6.52311,4.35561,1.62382
5.98506,4.33315,1.51945
7.66529,4.39669,1.52473
7.00429,4.37635,1.4183
6.43565,4.36695,1.32619
5.91093,4.34546,1.23934
7.48316,4.36826,1.18133
6.8605,4.35971,1.10017
6.31675,4.35525,1.02895
5.78922,4.32046,0.958461
7.17057,4.26009,0.838899
6.38085,4.12064,0.757092
6.11059,4.27942,0.733074
5.79337,4.38995,0.702794
7.22482,4.36819,0.546066
6.69993,4.40034,0.51103
6.18158,4.39884,0.472746
5.68216,4.36969,0.435915
7.18137,4.41593,0.244051
6.58656,4.39558,0.220678
6.0615,4.37878,0.198733
5.62931,4.39489,0.177786
5.07748,3.17146,-0.0308406
4.65755,3.1562,-0.0332589
4.31168,3.16026,-0.0392522
4.0012,3.1694,-0.0463074
5.00459,3.17774,-0.244001
4.61001,3.17401,-0.23478
4.25547,3.16866,-0.229899
3.93099,3.16224,-0.228096
4.93397,3.18407,-0.456073
4.53406,3.17212,-0.43387
4.20209,3.17937,-0.421376
3.87985,3.17129,-0.41006
4.85471,3.18496,-0.667117
4.48773,3.18848,-0.639164
4.12292,3.17057,-0.610119
3.83516,3.18568,-0.597156
8.14225,3.98673,4.05385
7.60466,4.11868,3.85252
7.15703,4.26329,3.6976
6.57953,4.28753,3.48073
8.37873,4.21022,3.78129
7.76633,4.30122,3.56914
6.22115,3.77833,2.92171
6.47094,4.29191,3.10536
8.35998,4.30282,3.40402
6.7858,3.83998,2.81703
7.00569,4.33738,2.965
6.41303,4.32834,2.77496
8.22742,4.32878,2.99531
7.54382,4.35408,2.79628
6.9116,4.35811,2.61358
6.26747,4.29797,2.42258
8.12416,4.3658,2.61365
7.24672,4.26336,2.37494
6.56115,4.20806,2.19377
6.25785,4.36258,2.13716
7.81807,4.28549,2.19098
7.24569,4.34263,2.06674
6.64919,4.33754,1.93467
6.09853,4.31878,1.80967
7.84685,4.38539,1.87488
7.13872,4.35479,1.73512
6.55197,4.34601,1.62224
6.04918,4.35151,1.5271
7.68892,4.37932,1.52051
7.03511,4.36598,1.41607
6.43735,4.33956,1.31867
5.94228,4.34074,1.23822
7.54159,4.37194,1.18222
6.94298,4.38281,1.10536
6.34843,4.34885,1.02678
5.80435,4.30445,0.95415
7.42805,4.3832,0.860365
6.42211,4.12001,0.755255
6.1663,4.2909,0.733063
5.75525,4.33376,0.692332
7.27238,4.36733,0.542757
6.74092,4.39848,0.507679
6.22918,4.40474,0.470259
5.6986,4.35525,0.431658
7.22191,4.41131,0.239159
6.61805,4.3882,0.215985
6.12655,4.39815,0.195303
5.65272,4.38616,0.173598
5.10296,3.16643,-0.0350687
4.67681,3.14909,-0.0370862
4.33311,3.15631,-0.0428729
4.01682,3.16248,-0.0495961
5.04841,3.18478,-0.249913
4.64721,3.17955,-0.240084
4.2823,3.16912,-0.234372
3.96042,3.16682,-0.232574
4.9623,3.18182,-0.461901
4.57416,3.18032,-0.440691
4.22468,3.1771,-0.426172
3.90204,3.17048,-0.41464
4.88188,3.18251,-0.673607
4.51367,3.1872,-0.645275
4.15544,3.17645,-0.617093
3.85405,3.18252,-0.601828
8.16873,3.96816,4.0531
7.65129,4.11304,3.86226
7.23636,4.27986,3.72452
6.62338,4.28644,3.49039
8.4116,4.19407,3.78247
7.825,4.30193,3.5826
6.28237,3.78872,2.9389
6.49539,4.27885,3.10466
8.42064,4.30117,3.41562
6.81743,3.83001,2.81906
7.03771,4.32697,2.9665
6.44681,4.32192,2.77791
8.29494,4.33176,3.0076
7.59031,4.34973,2.80179
6.96291,4.3604,2.62166
6.33174,4.31326,2.43649
8.20029,4.37438,2.62659
7.21712,4.21606,2.35505
6.69719,4.26639,2.22854
6.22016,4.30772,2.11474
7.83418,4.26322,2.18529
7.31612,4.35449,2.07665
6.74267,4.36919,1.95194
6.14772,4.32535,1.815
7.89812,4.38258,1.87729
7.18229,4.3514,1.73644
6.59392,4.34493,1.62379
6.09515,4.3564,1.53016
7.78201,4.40123,1.52961
7.07012,4.35806,1.41462
6.51513,4.36335,1.32626
5.98403,4.34342,1.23916
7.58465,4.3664,1.18068
6.97025,4.37065,1.10194
6.45061,4.39037,1.0355
5.84178,4.30491,0.953339
7.458,4.37074,0.856307
6.48355,4.13203,0.755599
6.21313,4.29586,0.731965
5.77339,4.32026,0.688336
7.39883,4.41335,0.544805
6.77694,4.39316,0.503928
6.28177,4.41384,0.468045
5.79286,4.40003,0.432716
7.25394,4.4013,0.233981
6.64872,4.38013,0.211231
6.15354,4.38985,0.190822
5.7038,4.39873,0.170032
5.13101,3.16285,-0.0393674
4.76082,3.18535,-0.0420098
4.34484,3.14521,-0.0463341
4.03479,3.15734,-0.0529546
5.083,3.18575,-0.255351
4.68283,3.18376,-0.24534
4.30837,3.16886,-0.238828
3.986,3.16813,-0.236823
5.00242,3.18695,-0.468958
4.6037,3.18093,-0.446449
4.25128,3.17771,-0.431437
3.9258,3.17081,-0.419428
4.91157,3.18154,-0.680498
4.53557,3.18294,-0.650804
4.1904,3.18396,-0.624487
3.87371,3.17991,-0.60665
8.19436,3.94909,4.05192
7.66568,4.08989,3.85582
7.27405,4.27138,3.73005
6.6573,4.27868,3.49479
8.44279,4.17694,3.78287
7.86256,4.29074,3.58639
7.07734,4.23911,3.29413
6.51672,4.26365,3.10248
8.48727,4.30219,3.42949
6.8466,3.81851,2.82005
7.07616,4.32034,2.97064
6.50806,4.33367,2.79245
8.37525,4.34096,3.02433
7.64763,4.35128,2.81116
7.00297,4.35538,2.62546
6.47438,4.38124,2.47986
8.23997,4.36313,2.6279
7.5589,4.38496,2.45423
6.7368,4.26251,2.2315
6.28777,4.32593,2.12755
7.88527,4.25987,2.18917
7.36075,4.35062,2.07926
6.79883,4.37607,1.95843
6.18586,4.32385,1.81705
7.93572,4.37192,1.87644
7.22087,4.34476,1.73652
6.6515,4.35386,1.62901
6.11803,4.34456,1.5275
7.80311,4.38201,1.5248
7.13374,4.36751,1.41868
6.56274,4.36645,1.32776
6.04506,4.35978,1.24389
7.68798,4.39515,1.18813
7.00592,4.36361,1.09977
6.48083,4.38235,1.03295
5.86727,4.29637,0.950607
7.53954,4.38822,0.85784
6.49973,4.11492,0.75086
6.25102,4.29435,0.729801
5.78672,4.30312,0.683786
7.45524,4.41687,0.541888
6.84486,4.40823,0.502303
6.34591,4.43069,0.466536
5.82613,4.3979,0.429495
7.28939,4.39321,0.228853
6.68024,4.37246,0.20646
6.18869,4.38722,0.186506
5.73043,4.39215,0.165841
5.15823,3.15861,-0.0436897
4.78103,3.17843,-0.0459486
4.35411,3.13232,-0.049758
4.05592,3.15459,-0.0564066
5.11425,3.18441,-0.260639
4.71438,3.18499,-0.250392
4.33366,3.16789,-0.243266
4.01553,3.17243,-0.241377
5.04596,3.19399,-0.476413
4.62752,3.17744,-0.451638
4.27392,3.17521,-0.436293
3.94881,3.1704,-0.424155
4.94546,3.18311,-0.688042
4.56236,3.182,-0.657105
4.21593,3.18411,-0.630423
3.89262,3.17657,-0.611368
8.24388,3.94137,4.06241
7.7439,4.10061,3.88115
7.32126,4.26827,3.74035
6.71671,4.28707,3.51235
8.46895,4.15722,3.78102
7.92465,4.29268,3.60117
7.21872,4.29335,3.34653
6.13328,3.98479,2.91032
8.53886,4.29523,3.43722
6.87412,3.80596,2.82034
7.13881,4.32822,2.98472
6.51993,4.31226,2.78599
8.40657,4.3244,3.02346
7.67433,4.33516,2.80934
7.02441,4.33861,2.62233
6.48692,4.36042,2.47386
8.33508,4.38088,2.64653
7.58799,4.37072,2.4528
6.78788,4.26564,2.23811
6.3468,4.33779,2.13737
7.99039,4.28526,2.20766
7.49851,4.40126,2.10755
6.8256,4.36376,1.95653
6.23763,4.33162,1.82294
7.9613,4.35449,1.87277
7.26621,4.34196,1.73813
6.67552,4.34054,1.62612
6.1449,4.33546,1.52579
7.83018,4.36606,1.5211
7.19159,4.37304,1.42151
6.59892,4.36169,1.32694
6.05813,4.34125,1.23897
7.70881,4.37626,1.1831
7.09725,4.3909,1.10595
6.51271,4.3753,1.03061
5.88634,4.28305,0.946852
7.57731,4.37982,0.854507
6.57736,4.13652,0.752812
6.30786,4.3056,0.729668
5.80879,4.29246,0.680203
7.50312,4.41502,0.538316
6.88603,4.4057,0.498773
6.34709,4.4033,0.460712
5.84507,4.3848,0.425275
7.31971,4.38186,0.223547
6.7972,4.42032,0.203752
6.23857,4.3948,0.18249
5.7515,4.38121,0.161498
5.17522,3.14799,-0.0478798
4.80956,3.17694,-0.0500624
4.3934,3.14095,-0.0538101
4.08654,3.1591,-0.0601096
5.14638,3.18345,-0.26602
4.74018,3.18215,-0.255129
4.35898,3.16679,-0.247737
4.03963,3.17225,-0.245586
5.08874,3.20027,-0.483844
4.65219,3.17439,-0.456946
4.29898,3.17438,-0.441446
3.96718,3.16614,-0.428363
4.98023,3.18504,-0.695754
4.58592,3.17865,-0.662942
4.24546,3.18711,-0.637022
3.91615,3.17691,-0.616881
8.27691,3.92555,4.06477
7.83768,4.11902,3.91398
7.37092,4.26631,3.75179
6.74995,4.27843,3.51624
8.52098,4.15002,3.79056
7.97293,4.28681,3.60962
7.26208,4.28851,3.35366
6.02151,3.88519,2.84667
8.61495,4.30023,3.4546
6.93384,3.81103,2.8336
7.2121,4.34211,3.00304
6.57113,4.31677,2.7961
8.43022,4.3038,3.01985
7.72263,4.33108,2.81528
7.14501,4.38273,2.6556
6.40972,4.27957,2.43427
8.3151,4.33784,2.62903
7.6363,4.36737,2.45745
6.85623,4.27924,2.25021
6.42193,4.3602,2.15237
8.04771,4.28443,2.21298
7.54007,4.3947,2.10904
6.85319,4.35186,1.95483
6.27591,4.32972,1.82488
8.11255,4.40535,1.89795
7.34615,4.35949,1.74774
6.7588,4.36549,1.63726
6.19425,4.34203,1.52948
7.88484,4.36532,1.52258
7.23941,4.37213,1.42231
6.61699,4.34481,1.32254
6.09044,4.33646,1.23784
7.80559,4.4002,1.18928
7.12969,4.38127,1.10315
6.54626,4.36921,1.02848
6.06207,4.3832,0.967168
7.66603,4.40052,0.856578
6.64927,4.15399,0.754012
6.35742,4.31151,0.728649
5.82845,4.27994,0.67633
7.55107,4.41293,0.53468
6.93735,4.4094,0.495859
6.40977,4.41851,0.458963
5.87758,4.3818,0.421929
7.3672,4.38061,0.21863
6.87086,4.43926,0.199833
6.26645,4.38662,0.177906
5.76698,4.36595,0.157015
5.27599,3.18807,-0.0535249
4.83646,3.17421,-0.0541824
4.41323,3.13546,-0.0574985
4.11168,3.15917,-0.0637179
5.18024,3.18337,-0.271544
4.77346,3.18418,-0.260366
4.38999,3.16966,-0.252614
4.06062,3.16949,-0.249603
5.11302,3.19469,-0.48942
4.6884,3.17907,-0.463518
4.32647,3.1752,-0.4469
3.99024,3.16553,-0.433145
5.01254,3.18519,-0.703144
4.61684,3.18027,-0.669936
4.27027,3.1864,-0.642901
3.93586,3.17402,-0.621777
8.31656,3.91269,4.07032
7.88055,4.11019,3.92143
7.41429,4.26044,3.75996
6.79485,4.27699,3.52608
8.56134,4.13689,3.79488
8.02618,4.28332,3.62021
7.31833,4.291,3.36658
6.03525,3.86731,2.84192
8.65148,4.28514,3.45616
6.98622,3.81171,2.84379
7.24026,4.32845,3.00267
6.60664,4.31069,2.79952
8.58652,4.35045,3.06303
7.76849,4.32536,2.82025
7.1405,4.34958,2.64282
6.46883,4.29014,2.44583
8.37705,4.33757,2.63711
7.67378,4.35758,2.45858
6.8895,4.2706,2.25088
6.4741,4.36653,2.15965
8.09736,4.27921,2.21614
7.57325,4.38306,2.10817
6.90956,4.35804,1.96114
6.34473,4.34858,1.83543
8.15985,4.39898,1.89905
7.43811,4.38355,1.75997
6.80848,4.36824,1.6403
6.23163,4.33993,1.53019
7.94217,4.36572,1.52447
7.27461,4.36335,1.42064
6.63419,4.32733,1.31797
6.13485,4.34008,1.23905
7.83251,4.38432,1.18504
7.17144,4.37719,1.10168
6.579,4.36241,1.02618
6.09996,4.3826,0.966078
7.70047,4.38962,0.852741
6.67906,4.14477,0.750584
6.38395,4.30156,0.725065
5.86496,4.27969,0.674276
7.59992,4.4111,0.531036
7.0014,4.42084,0.493702
6.46931,4.43113,0.456911
5.93176,4.39471,0.419944
7.42679,4.38624,0.213935
6.85724,4.40156,0.193802
6.31073,4.38975,0.173645
5.81356,4.37411,0.153143
5.30765,3.18582,-0.0580803
4.87007,3.17573,-0.0584685
4.491,3.1709,-0.0624932
4.13526,3.15791,-0.0673184
5.22011,3.18677,-0.277475
4.80596,3.1855,-0.265594
4.41781,3.17005,-0.257317
4.08634,3.17032,-0.253983
5.14492,3.19373,-0.495816
4.72385,3.183,-0.470051
4.35641,3.17765,-0.452662
4.01566,3.16666,-0.438234
5.05326,3.19048,-0.711821
4.64781,3.18173,-0.676972
4.28954,3.18142,-0.647921
3.96253,3.17663,-0.627867
8.36036,3.90159,4.07782
7.93158,4.10536,3.93283
7.46249,4.25709,3.77047
6.86857,4.29334,3.5506
8.62266,4.13363,3.80833
8.09513,4.28785,3.63768
7.36986,4.29038,3.37724
6.0552,3.8534,2.84008
8.7413,4.29611,3.47869
7.01465,3.79908,2.84426
7.27164,4.31661,3.00359
6.73954,4.36769,2.84351
8.60349,4.32582,3.05686
7.84863,4.33837,2.8374
7.1628,4.33284,2.63987
6.48664,4.27304,2.44191
8.50168,4.36921,2.66446
7.69448,4.33813,2.45438
6.91704,4.25825,2.24966
6.43984,4.3145,2.13857
8.15999,4.28052,2.2227
7.61233,4.37467,2.10887
6.95614,4.35771,1.96462
6.45073,4.39232,1.85634
8.17521,4.37522,1.89281
7.39239,4.32625,1.74025
6.8384,4.35806,1.63862
6.26745,4.33653,1.53048
8.03247,4.38381,1.53242
7.3166,4.35846,1.4202
6.67784,4.32699,1.31847
6.18984,4.35088,1.24225
7.86721,4.37265,1.1819
7.20984,4.37085,1.09966
6.65565,4.38443,1.03041
6.16534,4.40146,0.969096
7.72538,4.37315,0.847857
6.72157,4.14327,0.748466
6.41379,4.29371,0.721805
5.99822,4.34956,0.682606
7.57015,4.36358,0.522271
7.04277,4.41759,0.489983
6.477,4.40799,0.451443
5.96599,4.39252,0.416601
7.47958,4.3875,0.208999
6.93023,4.41944,0.189722
6.34029,4.3824,0.169016
5.85222,4.37605,0.149054
5.34363,3.18598,-0.062758
4.86098,3.14929,-0.0619311
4.5126,3.1662,-0.0663127
4.15887,3.15654,-0.0709487
5.25406,3.18633,-0.283097
4.82684,3.17894,-0.270124
4.4546,3.17669,-0.262658
4.11211,3.17102,-0.258396
5.17346,3.19051,-0.501902
4.7486,3.17953,-0.475471
4.39042,3.18287,-0.45892
4.04269,3.1689,-0.443542
5.08565,3.19028,-0.719305
4.67389,3.17967,-0.68329
4.31598,3.18166,-0.654116
3.98847,3.17849,-0.633861
8.39422,3.88564,4.08045
7.9892,4.10363,3.94735
7.55144,4.27659,3.80123
6.92224,4.29669,3.56467
8.70843,4.14165,3.83232
8.16008,4.28985,3.65323
7.47707,4.32171,3.41297
6.07435,3.83892,2.83785
8.80758,4.29501,3.49177
7.09041,3.81182,2.86361
7.33065,4.32094,3.01572
6.74518,4.34154,2.83425
8.05531,4.01867,2.85287
7.86954,4.31829,2.8333
7.22269,4.33867,2.65053
6.50759,4.25798,2.43916
8.55018,4.36109,2.66808
7.73532,4.32992,2.45649
6.95691,4.25335,2.25234
6.45911,4.29859,2.13506
8.20114,4.27026,2.22341
7.66495,4.37382,2.11318
6.99289,4.35097,1.9653
6.48051,4.38355,1.85556
8.2234,4.36893,1.89401
7.41757,4.31073,1.73695
6.87412,4.35143,1.63826
6.33401,4.35412,1.53801
8.09608,4.38682,1.53526
7.40023,4.37802,1.42754
6.76054,4.3516,1.32637
6.23443,4.35403,1.24333
7.91927,4.37043,1.18123
7.26017,4.37149,1.09933
6.69599,4.38209,1.02911
6.1945,4.39409,0.966548
7.76415,4.3644,0.844392
6.77601,4.14884,0.74754
6.44032,4.28351,0.718156
6.11662,4.40758,0.689097
7.73937,4.43054,0.52618
7.0884,4.41679,0.486479
6.50363,4.39773,0.447175
5.993,4.38485,0.412761
7.54884,4.39807,0.204354
6.97553,4.41923,0.184944
6.39128,4.38966,0.16478
5.87732,4.36763,0.144663
5.37192,3.18135,-0.0673351
4.90216,3.15547,-0.0664338
4.54649,3.17,-0.0704491
4.19685,3.16592,-0.0749916
5.28463,3.18364,-0.288554
4.86274,3.18214,-0.275647
4.48007,3.17504,-0.267275
4.14107,3.17403,-0.263072
5.20796,3.1908,-0.50865
4.77917,3.17981,-0.481553
4.41804,3.18326,-0.46449
4.0674,3.16916,-0.448604
5.1206,3.19149,-0.72721
4.70575,3.18139,-0.690533
4.34326,3.18236,-0.660474
4.01212,3.17837,-0.639495
8.43722,3.87375,4.08744
8.07549,4.11621,3.97576
7.59186,4.26814,3.80761
6.93698,4.27566,3.55882
8.77249,4.13888,3.84668
8.19709,4.27685,3.65629
7.49254,4.29952,3.40708
6.0974,3.82684,2.83742
8.8366,4.27545,3.49014
7.1264,3.80279,2.86696
7.39221,4.3264,3.02875
6.80637,4.35106,2.84801
7.87618,3.8989,2.77915
7.9759,4.3448,2.85948
7.2663,4.33438,2.6552
6.54613,4.25431,2.44288
8.57033,4.33833,2.66293
7.81834,4.34498,2.47169
6.9993,4.24975,2.25576
6.47672,4.28155,2.13101
8.21292,4.24458,2.21626
7.68208,4.35251,2.10783
7.03711,4.34867,1.96798
6.50221,4.36921,1.85249
8.26989,4.36148,1.89474
7.59983,4.38595,1.7695
6.92149,4.35195,1.64055
6.37807,4.35583,1.5401
8.14415,4.38105,1.53512
7.4645,4.3856,1.4311
6.84429,4.37628,1.3343
6.26775,4.34905,1.24217
8.01226,4.39038,1.18636
7.32844,4.38258,1.10154
6.77545,4.40502,1.03351
6.2115,4.37799,0.96215
7.76294,4.33309,0.83675
6.79823,4.13443,0.743175
6.46269,4.27045,0.71404
6.13749,4.39465,0.685048
7.78933,4.42833,0.522358
7.12306,4.40891,0.482223
6.54184,4.39516,0.443599
6.03536,4.38824,0.409837
7.59574,4.39522,0.199129
6.99889,4.40493,0.179655
6.43493,4.39158,0.160332
5.91848,4.37101,0.140526
5.39591,3.17404,-0.0718625
4.92154,3.1474,-0.0705169
4.57388,3.16906,-0.0744715
4.22453,3.16728,-0.0788025
5.32549,3.18697,-0.294693
4.8987,3.18517,-0.281219
4.50719,3.17441,-0.272037
4.16612,3.17386,-0.267497
5.2374,3.1878,-0.514906
4.80895,3.17939,-0.487586
4.43922,3.17886,-0.469357
4.09372,3.17053,-0.453887
5.14885,3.18833,-0.734152
4.7508,3.19181,-0.699863
4.37137,3.18351,-0.666997
4.04125,3.18244,-0.646082
8.49525,3.8685,4.10157
8.13742,4.11588,3.99209
7.61949,4.25232,3.80758
7.00016,4.28435,3.57753
8.82989,4.1326,3.85803
8.23576,4.26453,3.66003
7.56943,4.31239,3.42877
6.12281,3.81615,2.83805
8.95997,4.30116,3.52527
7.17658,3.80111,2.87587
7.41963,4.31159,3.02787
6.85575,4.35266,2.85676
7.91816,3.88944,2.78276
8.01451,4.33387,2.86149
7.30668,4.32793,2.65862
6.56786,4.23955,2.44037
8.66367,4.35236,2.68013
7.86607,4.33998,2.47575
7.01612,4.23048,2.25103
6.50317,4.27029,2.12981
8.22634,4.21976,2.20956
7.8001,4.38804,2.12958
7.15024,4.3885,1.98943
6.53279,4.36075,1.85187
8.4363,4.41667,1.92225
7.6159,4.36437,1.7639
6.94065,4.33453,1.63625
6.47091,4.39044,1.55356
8.19922,4.37877,1.5362
7.56042,4.41129,1.44043
6.90577,4.38619,1.33787
6.29379,4.33887,1.23956
8.05406,4.38179,1.18402
7.40281,4.39687,1.10451
6.80512,4.39515,1.03049
6.2309,4.36354,0.958098
7.77467,4.30909,0.830455
6.85364,4.14005,0.742211
6.5175,4.27864,0.713274
6.16726,4.388,0.681911
7.82543,4.41799,0.517611
7.16454,4.40505,0.478342
6.57594,4.38962,0.439717
6.08426,4.3961,0.407253
7.66781,4.40661,0.194358
7.0485,4.40698,0.174856
6.47947,4.39383,0.15584
5.94844,4.36588,0.136145
5.40007,3.15499,-0.0760058
4.98813,3.16933,-0.0756887
4.60705,3.17196,-0.0786743
4.24986,3.16671,-0.082582
5.36642,3.19008,-0.300888
4.93304,3.18692,-0.28673
4.54006,3.17767,-0.27723
4.19199,3.17417,-0.272012
5.26856,3.18568,-0.521382
4.8346,3.17607,-0.493201
4.45879,3.1732,-0.474065
4.12638,3.17663,-0.459965
5.1788,3.18607,-0.741385
4.78112,3.19206,-0.706945
4.40915,3.19151,-0.675115
4.05795,3.17657,-0.65059
8.5734,3.87202,4.12519
8.17323,4.10203,3.99562
7.63667,4.2306,3.80237
7.02898,4.27169,3.57875
8.9262,4.1441,3.88607
8.30343,4.26695,3.67644
7.62056,4.31014,3.43876
6.14188,3.80141,2.83575
9.0257,4.29854,3.53773
7.23602,3.80401,2.88835
7.50263,4.3288,3.04931
6.86209,4.32676,2.84776
7.96617,3.8827,2.78839
8.10025,4.34809,2.88001
7.42695,4.36835,2.69057
6.78338,4.34925,2.50857
8.76238,4.36847,2.69878
7.92569,4.34125,2.48342
7.03289,4.21114,2.24628
6.54819,4.27106,2.13454
8.23275,4.19136,2.20102
7.75696,4.33255,2.10798
7.17143,4.37134,1.98561
6.56013,4.34998,1.85032
8.45609,4.39435,1.91676
7.69072,4.37628,1.77157
6.96476,4.32015,1.63307
6.48838,4.37343,1.54922
8.35812,4.43133,1.55608
7.5857,4.3953,1.43653
6.92565,4.36939,1.33352
6.37276,4.36492,1.247
8.14823,4.40134,1.18905
7.44146,4.38954,1.10223
6.82645,4.37978,1.02622
6.28854,4.37571,0.959652
7.77498,4.2788,0.823005
6.91428,4.14845,0.741693
6.52405,4.25494,0.707451
6.19866,4.38237,0.678907
7.85893,4.40602,0.51266
7.19498,4.39421,0.473734
6.62088,4.39111,0.436447
6.1292,4.40079,0.404358
7.73828,4.41661,0.189449
7.10666,4.41407,0.170148
6.50502,4.383,0.150953
6.00021,4.37655,0.132075
5.40934,3.13897,-0.0802603
5.05827,3.19303,-0.0810368
4.63615,3.17186,-0.0828155
4.27361,3.16483,-0.0863479
5.40741,3.19298,-0.307141
4.95735,3.182,-0.29162
4.57217,3.18019,-0.282411
4.2187,3.17496,-0.27662
5.30316,3.18546,-0.528264
4.86527,3.17591,-0.499402
4.48242,3.17034,-0.479264
4.15358,3.17832,-0.465417
5.21977,3.19039,-0.750319
4.82055,3.19819,-0.715489
4.43494,3.1906,-0.681329
4.08559,3.17916,-0.656979
8.62575,3.86348,4.13636
8.24845,4.10769,4.01816
7.66022,4.21236,3.80031
7.09631,4.2822,3.59929
8.97872,4.13478,3.89505
8.3513,4.25884,3.68405
7.67664,4.31037,3.45085
6.18155,3.79932,2.84283
9.10006,4.29962,3.55339
7.27549,3.7961,2.89285
7.52766,4.31217,3.04733
6.92755,4.33803,2.86295
7.9807,3.85948,2.78241
8.14908,4.34205,2.88543
7.50633,4.38397,2.70765
6.87317,4.37695,2.53046
8.81373,4.36047,2.70287
7.99728,4.34867,2.49465
7.04877,4.19125,2.24126
6.56332,4.25215,2.12964
8.26338,4.17528,2.19886
7.8157,4.33412,2.11365
7.20008,4.35864,1.98379
6.59235,4.34232,1.85008
8.48366,4.37601,1.913
7.82889,4.42356,1.79333
7.10829,4.37941,1.65714
6.51232,4.36073,1.54638
8.45193,4.44843,1.56388
7.61095,4.3792,1.43259
6.98228,4.37562,1.33601
6.4642,4.39889,1.25663
8.19191,4.39313,1.1868
7.4904,4.38806,1.10136
6.8536,4.36807,1.02277
6.32835,4.37514,0.958507
7.78566,4.25429,0.816616
6.94339,4.13764,0.737889
6.6124,4.28441,0.709981
6.22031,4.36971,0.67486
7.88893,4.39194,0.507459
7.24761,4.39672,0.470417
6.68672,4.40614,0.434358
6.15717,4.39306,0.400393
7.77322,4.40599,0.183764
7.10879,4.38614,0.16435
6.58204,4.40659,0.1469
6.04562,4.38225,0.127836
5.50339,3.17195,-0.0864226
5.08373,3.18813,-0.0854092
4.66199,3.16936,-0.0869074
4.29738,3.16283,-0.0901438
5.44071,3.19111,-0.312953
4.99513,3.18558,-0.297442
4.59941,3.17914,-0.287288
4.24225,3.17323,-0.281023
5.33524,3.18353,-0.534918
4.90431,3.18102,-0.50657
4.51176,3.17138,-0.485154
4.18161,3.18049,-0.471001
5.25234,3.18935,-0.758027
4.83937,3.19045,-0.720844
4.46076,3.18958,-0.687576
4.11483,3.18283,-0.663672
8.68821,3.85914,4.15222
8.29255,4.09746,4.02553
7.6805,4.19227,3.79664
7.14253,4.27958,3.60909
9.04399,4.131,3.9094
8.42664,4.2644,3.70354
7.71896,4.30259,3.45672
6.23242,3.80386,2.85489
9.15574,4.29148,3.56171
8.2615,4.27923,3.26797
7.57236,4.30667,3.05319
6.96751,4.33297,2.86761
8.00893,3.84283,2.78114
8.23428,4.355,2.90344
7.53796,4.37129,2.7076
6.89619,4.36167,2.52797
8.88419,4.36158,2.71265
8.11062,4.37822,2.51854
7.00641,4.13689,2.21808
6.71965,4.32431,2.16964
8.314,4.16913,2.20188
7.81653,4.3034,2.10388
7.23123,4.34733,1.98262
6.62539,4.33505,1.85002
8.51208,4.358,1.90939
7.84937,4.40369,1.7885
7.14765,4.3737,1.65724
6.54114,4.35121,1.54464
8.46456,4.42243,1.5569
7.70132,4.40028,1.44052
7.02058,4.37006,1.33501
6.48392,4.38358,1.25261
8.23385,4.38377,1.18426
7.55227,4.39382,1.10225
6.89583,4.36581,1.02144
6.3535,4.36424,0.955178
8.13059,4.41152,0.84344
7.01533,4.1521,0.738341
6.68089,4.30043,0.710352
6.24928,4.3621,0.671537
7.93638,4.3874,0.503249
7.30629,4.40257,0.467382
6.71596,4.3967,0.43002
6.18025,4.38173,0.39611
7.8073,4.39471,0.178019
7.13382,4.37236,0.158953
6.60518,4.39371,0.141873
6.10327,4.3965,0.123708
5.5734,3.19046,-0.0921637
5.11005,3.18364,-0.0898352
4.69282,3.17011,-0.0911682
4.32601,3.16427,-0.0941162
5.47748,3.19108,-0.319034
5.02202,3.182,-0.302576
4.62831,3.17908,-0.292318
4.26742,3.17257,-0.285578
5.38103,3.18957,-0.543095
4.94343,3.18592,-0.513793
4.54685,3.17627,-0.491748
4.20254,3.1771,-0.475751
5.28323,3.18711,-0.765521
4.8731,3.19242,-0.728568
4.48499,3.18727,-0.693594
4.14805,3.18938,-0.671074
8.77089,3.86338,4.17753
8.4628,4.14898,4.09337
7.708,4.17605,3.79651
7.19277,4.27909,3.62079
9.14074,4.14114,3.93708
8.48964,4.26328,3.71751
7.76132,4.29461,3.46253
6.26905,3.79941,2.86042
9.19348,4.27467,3.56304
8.3582,4.29668,3.29325
7.68867,4.34144,3.08742
7.02438,4.33816,2.87906
8.03542,3.82523,2.77925
8.33827,4.37729,2.92779
7.56379,4.35513,2.70546
6.93213,4.35444,2.53012
9.00073,4.38476,2.73613
8.1868,4.38704,2.53083
7.0537,4.13566,2.2229
6.82446,4.36222,2.19292
8.36293,4.16184,2.20438
7.86253,4.29751,2.10605
7.28077,4.34688,1.98634
6.69113,4.3489,1.85884
8.63579,4.3884,1.92664
7.87666,4.38757,1.78517
7.18202,4.36475,1.65616
6.57898,4.34752,1.54494
8.46922,4.3923,1.54851
7.79275,4.42136,1.44847
7.08663,4.38149,1.33907
6.51837,4.37813,1.25133
8.32669,4.40114,1.18871
7.58761,4.38384,1.09931
6.94482,4.36758,1.02102
6.44175,4.3964,0.96089
8.1592,4.39543,0.838501
7.05137,4.14494,0.735113
6.73192,4.3048,0.708863
6.29709,4.36744,0.670075
7.99526,4.38887,0.499635
7.38906,4.4225,0.465659
6.78202,4.41113,0.427772
6.26778,4.41582,0.395499
7.83614,4.38034,0.17214
7.19297,4.37931,0.154087
6.63912,4.3879,0.136983
6.1375,4.39354,0.119183
5.59405,3.18035,-0.0968245
5.15337,3.18956,-0.0947292
4.73364,3.1774,-0.0957492
4.35387,3.16498,-0.0981016
5.50912,3.18785,-0.324825
5.04807,3.17776,-0.307687
4.65479,3.17719,-0.297208
4.29342,3.17239,-0.290225
5.4149,3.18829,-0.550033
4.9759,3.18631,-0.520319
4.57628,3.17699,-0.49772
4.22508,3.17481,-0.48072
5.3201,3.18828,-0.773965
4.90189,3.19097,-0.735552
4.50844,3.18427,-0.69951
4.17111,3.18792,-0.67677
8.85373,3.86717,4.20271
8.48738,4.12829,4.09105
7.7379,4.16102,3.79752
7.22093,4.26523,3.62142
9.20028,4.13391,3.94869
8.5302,4.25058,3.72165
7.84704,4.31026,3.48737
6.29532,3.78851,2.86122
9.23464,4.25928,3.56564
8.47363,4.32306,3.32558
7.64707,4.28667,3.05886
7.08057,4.34256,2.89011
8.07223,3.81242,2.78086
8.37471,4.3636,2.92855
7.61365,4.35265,2.71177
6.98188,4.35568,2.53716
9.048,4.37362,2.73865
8.212,4.36819,2.52749
7.09856,4.13274,2.22688
6.87742,4.36634,2.19962
8.43547,4.16597,2.2129
7.9548,4.31654,2.12029
7.35971,4.3636,1.99782
6.72429,4.34122,1.85868
8.7081,4.39199,1.93244
7.92281,4.3818,1.78599
7.23068,4.36427,1.65823
6.61439,4.34203,1.54463
8.48869,4.36989,1.54278
7.81384,4.40212,1.44357
7.1343,4.38117,1.33964
6.55942,4.37691,1.25122
8.42762,4.42216,1.19411
7.63586,4.38112,1.09812
7.00483,4.37595,1.02206
6.41855,4.35216,0.950542
8.21062,4.39145,0.835753
7.09775,4.14363,0.732852
6.76623,4.2982,0.705639
6.37614,4.39406,0.671657
8.03492,4.37951,0.494837
7.41881,4.41028,0.460771
6.81469,4.40349,0.423525
6.31713,4.42246,0.39259
7.91913,4.39597,0.16712
7.27787,4.4015,0.149535
6.66975,4.37974,0.132003
6.16932,4.38868,0.114584
5.62861,3.17804,-0.101854
5.17975,3.18476,-0.099237
4.76041,3.17502,-0.0999809
4.3753,3.16086,-0.101918
5.53732,3.18247,-0.330429
5.0716,3.17179,-0.312656
4.67881,3.17348,-0.301953
4.31945,3.17208,-0.294907
5.44279,3.1833,-0.556361
5.00254,3.18279,-0.526226
4.60084,3.17417,-0.503155
4.25002,3.1742,-0.486013
5.35275,3.18673,-0.781808
4.93071,3.18937,-0.742575
4.53756,3.18516,-0.706387
4.18711,3.18095,-0.681276
8.95945,3.88038,4.23846
8.51934,4.1111,4.09225
7.76778,4.14586,3.7985
7.26414,4.26011,3.62947
9.17303,4.0876,3.92339
8.63513,4.26957,3.75348
7.88382,4.2986,3.49053
6.34561,3.79189,2.87275
9.45275,4.32478,3.63563
8.52949,4.31844,3.33457
7.66793,4.2672,3.05511
7.1078,4.32894,2.8894
8.14021,3.81407,2.79299
8.39416,4.34095,2.92341
7.69518,4.36789,2.72907
7.00408,4.33949,2.53428
9.09703,4.36308,2.74163
8.27131,4.36731,2.53445
7.11588,4.11361,2.22232
6.89206,4.34593,2.1942
8.53261,4.18174,2.22762
8.06272,4.34339,2.13842
7.42624,4.37247,2.00584
6.78945,4.35395,1.86711
8.78491,4.3974,1.93909
7.98449,4.38432,1.79016
7.2912,4.37062,1.66288
6.69424,4.36539,1.55435
8.52392,4.3555,1.53981
7.84523,4.38859,1.44051
7.18204,4.38061,1.34015
6.58323,4.36401,1.24787
8.44427,4.39853,1.18783
7.6721,4.37125,1.0952
7.05062,4.37508,1.02103
6.44287,4.34033,0.946998
8.27616,4.3947,0.834293
7.15796,4.1501,0.731869
